ply
format ascii 1.0
comment Created by Open3D
element vertex 1973
property double x
property double y
property double z
end_header
-393.941 -37.6649 377.241
-388.965 -41.2912 377.239
-0.742828 -55.6468 377.232
-218.819 5.67355 377.221
-230.52 -79.7231 377.217
6.77387 -55.3939 377.199
-395.738 -33.2413 377.199
93.8948 -81.7799 377.169
140.883 -11.0973 377.162
147.545 -35.6115 377.145
-89.552 5.85092 377.143
-293.673 -81.8498 377.14
-332.234 15.7503 377.128
131.631 -53.9031 377.12
-328.228 -55.7291 377.115
-393.785 -12.2488 377.11
-395.618 -16.7068 377.087
-75.6364 31.7903 377.084
107.847 -55.6254 377.038
34.1054 -81.9611 377.006
-163.346 32.1165 376.999
83.5584 -82.1156 376.999
-33.5942 7.89124 376.997
-70.5688 32.112 376.997
146.174 -38.2729 376.993
-267.192 -82.1032 376.992
-54.6899 7.90312 376.992
-149.309 32.0979 376.989
-249.339 -82.0979 376.989
-19.0826 32.0961 376.988
-281.355 -82.0954 376.988
-54.6668 32.0915 376.986
-157.312 32.0911 376.986
-259 -57.924 376.986
57.567 -82.0906 376.985
-51.0292 7.91643 376.985
-167.274 32.0882 376.984
-289.892 -82.0873 376.984
-171.053 32.0865 376.983
-24.2961 32.0862 376.983
-72.2376 32.0859 376.983
54.1654 -82.0856 376.983
-131.413 32.0849 376.982
-182.138 32.0825 376.981
68.1098 -57.9331 376.981
-165.864 32.0818 376.981
-154.025 7.92492 376.981
-154.144 32.0813 376.98
-235.379 -82.0705 376.98
-142.664 32.0792 376.979
-150.878 32.0791 376.979
53.0259 -82.0788 376.979
-135.21 32.0773 376.978
-145.042 7.93061 376.978
62.5568 -57.9394 376.977
-261.118 -57.9401 376.977
-57.7828 32.0741 376.976
-168.411 32.0706 376.975
-178.391 32.07 376.974
-44.2629 7.94198 376.972
-49.9439 32.0657 376.972
-39.3999 32.0656 376.972
-272.357 -57.9503 376.972
-261.593 -82.0633 376.971
-42.9476 7.94664 376.97
-277.033 -82.0604 376.969
-286.309 -82.0597 376.969
76.68 -82.0595 376.969
-274.715 -57.9562 376.969
-265.09 -82.0591 376.968
-177.443 32.0578 376.968
34.7443 -82.0287 376.968
-264.954 -57.959 376.967
74.6571 -82.0552 376.966
-245.48 -82.0526 376.965
-273.358 -82.0525 376.965
-136.668 32.0472 376.962
-46.9526 32.0447 376.961
-35.5284 7.96641 376.96
-32.5825 32.0422 376.959
-62.9705 32.0412 376.959
-172.422 32.0406 376.958
-22.8958 32.0405 376.958
-174.919 32.0388 376.957
-29.2362 32.0385 376.957
-66.7663 32.0378 376.957
75.0356 -57.979 376.956
-148.916 7.9733 376.956
-53.2964 32.0362 376.956
-139.461 32.0352 376.955
-279.444 -82.0333 376.954
53.9632 -57.9853 376.953
-53.375 7.98055 376.953
-37.1885 32.0281 376.952
-143.227 7.98364 376.951
78.9293 -82.0249 376.95
-145.456 32.0249 376.95
-247.25 -82.0246 376.95
42.5899 -82.0241 376.949
77.2072 -57.9928 376.949
-61.2313 32.023 376.949
66.4268 -57.9936 376.949
81.6823 -82.0227 376.949
-40.9736 32.0222 376.948
-392.253 -40.4121 376.948
45.7894 -82.0171 376.946
-274.92 -82.0172 376.946
-37.9623 7.99603 376.945
49.8263 -82.0147 376.944
-69.1321 32.0078 376.941
-263.588 -82.0045 376.939
-394.117 -36.7135 376.933
-362.053 20.2908 376.881
141.061 -38.391 376.855
21.7401 8.03806 376.851
145.437 -38.3625 376.845
27.7792 -76.226 376.844
144.506 -11.6412 376.841
139.037 -11.6491 376.829
142.986 -38.3172 376.815
-227.815 -76.2447 376.804
-13.4948 30.1466 376.799
21.9635 -58.4864 376.798
143.107 -11.7175 376.795
139.547 -38.2686 376.783
-88.4351 -56.4106 376.775
-391.219 -40.585 376.758
94.717 -80.6246 376.735
-188.209 28.0663 376.727
-394.123 -13.7321 376.723
-76.7195 30.5987 376.722
-231.78 -80.2531 376.715
-390.829 -9.48485 376.71
148.137 -17.0628 376.71
-294.679 -80.6049 376.703
146.525 -12.9982 376.695
-229.591 -78.2016 376.692
-348.874 20.3472 376.692
-117.587 24.548 376.691
31.7444 -80.1881 376.686
148.147 -32.8099 376.685
-123.346 30.5824 376.682
-387.084 -9.53587 376.673
-351.159 -70.3373 376.669
-233.249 -81.0028 376.663
29.7421 -78.3272 376.663
-354.651 -70.333 376.661
-388.973 -9.56488 376.655
-358.544 20.322 376.642
-49.2194 31.3964 376.639
-217.363 -54.9562 376.63
68.9698 -81.3765 376.626
-162.824 8.64752 376.625
33.2237 -80.9456 376.625
-386.927 -40.3539 376.598
-343.423 20.2968 376.594
82.9998 -81.3009 376.593
-340.734 -70.2949 376.586
-329.701 6.39322 376.586
-37.2243 8.73544 376.586
-355.191 20.2928 376.584
-165.107 8.74933 376.578
-66.8502 31.2658 376.577
77.0183 -81.2544 376.576
-337.157 -70.2443 376.572
-15.1573 30.8173 376.571
-43.0429 8.76515 376.567
63.1673 -58.7694 376.565
-290.996 -81.2197 376.562
-49.0311 8.78651 376.558
-125.062 31.0882 376.557
60.9686 -81.2126 376.553
-346.967 20.2761 376.55
74.9055 -58.8061 376.546
-162.89 31.1994 376.545
-50.9395 8.82053 376.543
-135.16 31.1917 376.543
96.7032 -78.7063 376.54
-333.203 16.5231 376.539
-184.736 30.655 376.538
-262.889 -81.1793 376.537
-388.722 -40.2575 376.535
-41.1376 8.84951 376.534
88.7589 -81.1705 376.533
55.3539 -81.1686 376.533
-39.0309 31.1665 376.533
-264.968 -81.1712 376.531
-72.8816 31.1668 376.531
-275.266 -58.8477 376.53
-289.159 -81.1572 376.528
-268.876 -58.8551 376.524
-338.542 20.2578 376.524
-151.216 8.86466 376.523
-352.93 -70.2625 376.521
45.9988 41.9542 376.517
53.0479 -58.866 376.516
-47.1768 8.87947 376.514
56.9052 -58.8761 376.513
-287.008 -81.1254 376.512
-275.036 -81.1277 376.51
-74.9774 30.9845 376.509
-152.901 31.1159 376.508
-155.072 31.1138 376.506
-148.873 8.91187 376.503
-167.01 31.1057 376.502
-40.9701 31.0982 376.5
-268.985 -81.0932 376.499
-121.564 28.8996 376.496
-33.0398 31.0873 376.496
36.9922 -81.0843 376.495
-272.935 -58.9263 376.494
70.8207 -81.0817 376.494
-345.055 20.2467 376.492
92.8142 -80.9801 376.492
-339.291 -70.2455 376.491
-344.937 -70.2486 376.49
-169.239 31.0739 376.49
61.2708 -58.9249 376.49
148.453 -31.1137 376.489
-171.243 31.0708 376.489
-32.8908 8.93664 376.489
-19.2145 31.0706 376.488
-145.023 8.93333 376.487
-280.954 -81.0708 376.487
-34.8952 31.0724 376.485
-179.2 31.0624 376.484
-174.882 31.0622 376.483
-155.231 8.95683 376.481
-152.862 8.94993 376.481
-137.225 31.0548 376.48
47.033 -81.0441 376.476
-240.893 -81.0589 376.476
-181.139 31.0476 376.476
-126.994 31.0417 376.476
-238.938 -81.0525 376.476
-262.907 -58.9611 376.475
-158.845 8.976 376.474
-347.158 -70.2393 376.472
-261.196 -58.9695 376.47
52.9221 -81.0345 376.47
-141.118 31.0341 376.469
-132.836 31.0332 376.469
-234.888 -81.0205 376.468
-360.901 20.2235 376.467
-254.978 -81.0322 376.466
85.2239 -81.026 376.464
80.9631 -81.0183 376.463
90.88 -81.0168 376.462
-62.9414 31.022 376.461
25.3619 -72.6599 376.46
-111.826 6.42472 376.459
-245.201 -81.0128 376.458
-3.87122 -58.0333 376.458
-279.219 -81.0045 376.456
-350.929 20.2282 376.455
-157.015 31.0089 376.455
63.1617 -81.0057 376.455
56.9853 -81.0018 376.453
-341.095 20.2242 376.452
-329.721 -56.3145 376.452
-156.977 9.01543 376.451
-297.043 -78.2688 376.451
-146.991 9.02197 376.449
-272.893 -80.9852 376.448
-25.1564 30.9879 376.448
120.755 -54.8084 376.448
-172.002 -91.9797 376.448
-78.5276 28.7717 376.447
132.289 -52.4821 376.447
64.8893 -59.0232 376.447
130.72 4.45301 376.446
-35.1283 9.01871 376.446
-271.031 -80.9747 376.445
-182.8 30.9466 376.444
-22.8298 30.9788 376.444
-29.056 30.9799 376.443
-266.845 -80.9728 376.442
-357.171 20.2209 376.441
-37.0496 30.9765 376.44
-52.9969 30.9761 376.44
-38.9632 9.03838 376.44
-44.7592 30.9679 376.439
44.9345 -80.9717 376.438
-265.153 -59.0431 376.438
35.1694 -80.9587 376.438
-249.31 -80.9762 376.437
147.113 -14.9202 376.437
70.8639 -59.0507 376.436
-64.9225 30.9605 376.435
-144.733 30.9573 376.435
-261.317 -80.9586 376.435
-50.8472 30.9554 376.435
-11.992 28.3289 376.434
-276.711 -80.9543 376.433
-292.811 -80.8682 376.433
78.9002 -80.9616 376.433
113.062 -54.7906 376.426
-53.0379 9.0666 376.426
67.0814 -80.9371 376.425
-173.058 30.9362 376.424
86.9774 -80.9369 376.423
-54.9274 30.9343 376.422
-247.369 -80.9327 376.421
-21.2008 30.9322 376.421
-352.824 20.2105 376.42
-237.099 -80.9323 376.42
41.0767 -80.9297 376.42
76.9336 -59.0758 376.419
59.0576 -80.9228 376.419
-283.146 -80.9284 376.419
-46.9678 30.9232 376.418
-129.004 30.9248 376.418
65.127 -80.9257 376.418
-69.0374 30.9219 376.418
-159.036 30.9242 376.418
58.8683 -59.0922 376.417
-60.855 30.9251 376.417
-200.812 4.78392 376.413
-360.827 -70.1996 376.411
-143.046 30.9088 376.41
-30.6448 30.9059 376.409
-57.174 9.1054 376.409
-43.008 30.9015 376.408
-242.793 -80.903 376.407
-146.998 30.8929 376.405
-54.8385 9.11584 376.405
-45.0226 9.1197 376.403
-26.8217 30.8855 376.398
-256.671 -80.8851 376.398
-358.894 -70.1986 376.396
-348.923 -70.1999 376.395
-139.286 30.876 376.395
-150.902 30.8659 376.392
72.9673 -59.1385 376.391
50.7878 -80.865 376.391
-16.8719 30.8578 376.39
-259.105 -80.8662 376.39
-256.844 -59.1417 376.39
-202.61 4.76353 376.39
-217.031 4.76555 376.39
-357.058 -70.1957 376.39
-149.006 30.8564 376.389
-177.049 30.8572 376.387
-285.237 -80.8531 376.386
-224.145 45.6371 376.386
48.8798 -80.8537 376.385
-259.163 -59.166 376.383
-394.44 -34.725 376.383
-58.9144 30.846 376.382
-130.93 30.8496 376.381
-266.909 -59.1632 376.38
-251.029 -80.8422 376.379
-71.0317 30.8381 376.377
-392.71 -11.3727 376.376
-57.0966 30.8258 376.374
-253.265 -80.8282 376.373
-254.686 -59.1815 376.371
42.8069 -80.8232 376.37
73.0179 -80.818 376.369
-342.887 -70.1847 376.365
-160.985 30.8117 376.363
-142.928 9.2112 376.36
67.0551 -59.209 376.36
104.032 44.0184 376.36
-7.13174 -96.3278 376.357
-160.858 9.21853 376.355
14.919 4.72941 376.355
-164.808 30.7911 376.354
81 -41.2215 376.35
-222.5 -67.1939 376.348
-271.017 -59.2499 376.341
-205.122 -54.7198 376.34
74.8392 -80.7526 376.338
-394.394 -15.263 376.337
-324.916 -54.715 376.336
9.03152 -54.7133 376.332
-91.0589 -54.784 376.331
146.282 -36.802 376.329
-86.3186 -93.1289 376.326
23.8243 -70.1928 376.325
148.333 -19.0634 376.324
69.0453 -59.2822 376.324
-209.177 4.71021 376.323
114.902 -54.7102 376.322
-88.309 6.1722 376.322
31.0374 -79.0316 376.32
-92.9543 4.7045 376.32
81 5.11211 376.319
12.9096 -54.7019 376.318
-109.121 4.78515 376.315
54.9089 -59.3089 376.314
124.789 4.6943 376.314
-12.9037 -96.9421 376.314
148.688 -28.7572 376.311
-58.9181 9.318 376.31
46 -40.7464 376.309
118.754 4.69385 376.306
8.92435 4.69324 376.305
-212.803 -54.6832 376.298
120.864 4.6835 376.295
-63 -25.0415 376.293
-129.214 -96.9383 376.292
-100.832 -54.6799 376.29
100.323 -74.3863 376.289
-331.49 11.0841 376.283
123.151 4.67026 376.281
-208.832 -54.6742 376.28
-323.077 -54.671 376.279
-319.101 4.67208 376.278
-223.454 44.7989 376.278
108.906 4.74833 376.272
-96.7968 4.66399 376.272
-99.0126 4.66412 376.268
-28 -82.86 376.267
11.1183 -54.6615 376.266
-94.7729 4.66797 376.266
-137 -88.8333 376.264
-392.512 -38.8298 376.263
-5.37337 -94.6748 376.263
-80.6518 26.3954 376.263
-215.009 4.66046 376.263
148.814 -23.1352 376.262
-63 -14.9575 376.26
-210.843 4.65935 376.26
-172 -11.0023 376.259
12.9391 4.65359 376.256
-205.231 4.65238 376.253
-28 -73.0059 376.25
148.615 -21.0155 376.249
81 -30.8887 376.247
-229.098 46.9304 376.246
-28 -80.9736 376.244
-189.02 26.6369 376.243
-115.841 -96.1505 376.241
-222.5 34.8904 376.24
21.3264 -56.9911 376.236
-137 -15.0567 376.234
-172 -59.0318 376.234
29.0913 46.9282 376.234
-227.323 -75.1689 376.233
-119.528 26.561 376.23
38.7387 -80.516 376.228
81 -18.8554 376.226
-281 -19.0027 376.225
117.192 4.62889 376.224
128.918 4.61565 376.223
-99.0957 -54.6268 376.223
14.8703 -54.6247 376.222
-95.0243 -54.6236 376.221
-92.9101 -54.6271 376.221
-27.8221 -93.0692 376.22
-137 -29.0532 376.22
46 -21.0101 376.219
-90.6024 4.76129 376.219
-83.0856 -96.6258 376.216
7.10914 -54.6217 376.215
-101.057 4.62347 376.215
41.1703 46.9092 376.214
-172 -31.0039 376.214
126.975 4.61002 376.213
-86.5 -72.9863 376.213
-125 -96.9245 376.212
132.328 2.2386 376.212
21.2518 6.86633 376.212
-222.5 19.0323 376.211
81 -34.8721 376.21
138.954 -12.8053 376.206
-320.964 4.61353 376.205
-225.53 -72.77 376.202
-96.766 -54.6128 376.202
-231.089 -78.9469 376.2
-203.184 -54.608 376.2
-172 -37.0243 376.199
-133.188 -96.7458 376.199
27.2966 -75.1099 376.199
1.02356 4.61128 376.198
-336.769 19.9828 376.198
98.4458 -76.5419 376.198
-115.383 21.0732 376.196
-116.792 23.1619 376.193
104.311 -68.3123 376.193
-63 -39.0324 376.192
-137 -54.8788 376.191
-281 -21.1953 376.189
113.033 4.60027 376.187
-324.7 4.59822 376.186
130.414 -54.5203 376.186
-86.3178 18.3094 376.179
126.747 -54.5906 376.179
-213.03 4.59389 376.178
110.978 -54.5901 376.172
-63 -13.0055 376.168
81 3.20378 376.166
-214.852 -54.5813 376.166
-210.786 -54.5807 376.166
17.1138 -54.5857 376.166
-281 -29.0604 376.165
-3.26281 -56.8441 376.165
-28 -87.0132 376.163
148.744 -26.8099 376.163
-172 -18.8638 376.162
-113.821 18.5328 376.161
-103.32 -54.5741 376.16
-86.5 -69.1934 376.159
-172 -81.0532 376.159
-63 -23.0404 376.154
118.971 -54.5734 376.154
-281 25.0023 376.152
104.5 16.8051 376.152
-219.067 -54.9252 376.151
4.9937 -54.5713 376.151
-207.007 -54.5691 376.149
-28 -13.1459 376.149
-281 36.5623 376.149
-172 -33.0027 376.146
10.9541 4.5702 376.146
22.5 23.0366 376.145
-327.063 4.64724 376.143
-335.266 -68.6539 376.143
-63 -2.9405 376.142
-12.7698 28.5982 376.141
-113.487 11.0743 376.141
-137 -86.9772 376.141
-331.693 -64.5306 376.14
-86.5 -70.7619 376.139
-281 9.18478 376.137
-4.5 -65.1438 376.136
-172 -72.9932 376.136
114.966 4.55876 376.134
6.79283 4.55933 376.133
-207.068 4.55574 376.132
-18.9681 -96.9105 376.132
-321.032 -54.5517 376.132
-28 -59.0079 376.131
140.829 -12.9481 376.131
123.311 -54.5538 376.129
-63 -40.838 376.128
46 -24.8171 376.127
-322.947 4.55122 376.126
-106.931 4.55064 376.126
-281 12.9578 376.126
145.103 -37.0287 376.125
19.1447 4.94719 376.122
-137 -76.9665 376.122
81 -25.127 376.122
-134.526 -96.204 376.12
-190.87 -96.8661 376.12
-318.954 -54.5418 376.118
81 -16.8041 376.115
25.381 46.4041 376.115
-63 -27.1147 376.114
46 -29.1279 376.114
22.5 25.1811 376.114
-394.832 -17.1254 376.114
-63 -51.1441 376.112
-21.0417 -96.9071 376.112
-137 -70.9026 376.111
46 -36.7989 376.109
46 27.0493 376.109
-137 -91.0252 376.109
81 -44.8481 376.108
-63 -53.0745 376.106
-222.5 26.8833 376.106
46 40.9249 376.104
-103.075 4.5331 376.103
46 -31.153 376.102
46 -26.9202 376.102
-186.93 28.4527 376.102
-172 -54.8946 376.102
-113.5 17.0514 376.1
-113.299 9.15874 376.099
46 25.0471 376.099
2.85602 -54.5259 376.098
0.959702 -54.5303 376.098
-137 -18.6912 376.093
-69.0828 -96.9038 376.093
-26.9377 -94.8727 376.093
-183.133 -96.9037 376.093
46 -45.2225 376.092
-1.11765 -54.9007 376.092
-86.5 -67.1726 376.092
-64.4131 -95.3248 376.091
128.943 -54.5202 376.091
-185.019 -96.9033 376.09
-188.986 -96.9032 376.089
-281 5.06697 376.089
-11.058 26.9365 376.089
-79.0528 -96.9031 376.089
-335.361 18.7307 376.088
104.5 38.9692 376.088
22.5 12.6918 376.087
23.1641 -69.1087 376.086
-281 -9.01753 376.086
81 -29.0923 376.085
81 -20.9448 376.085
-172.147 -92.8947 376.083
144.985 -13.0587 376.083
-82.3493 24.2341 376.082
-137 -33.1385 376.082
-222.5 17.1189 376.082
-1.02024 4.86714 376.081
22.5 -67.0691 376.08
22.5 27.1233 376.079
16.9306 4.51701 376.079
-331.2 -58.7787 376.077
-28 -33.1037 376.076
46 7.22684 376.075
-394.703 -33.1755 376.075
146.839 -34.904 376.075
46 11.1084 376.073
46 -35.0191 376.072
-281 18.9132 376.072
-173.145 -94.9699 376.071
104.5 31.0906 376.071
-86.5 -88.794 376.07
46 -22.9074 376.07
-172 -42.9124 376.069
117.067 -54.508 376.069
-28 -8.71339 376.068
46 9.22231 376.068
142.844 -36.9137 376.068
104.5 32.7764 376.067
-137 -51.0765 376.067
-317.033 -54.5027 376.066
-15.0416 -96.8991 376.066
-231.138 46.8991 376.066
-172 -86.7771 376.065
-172 -52.8538 376.065
124.911 -54.4948 376.064
-4.5 -76.9287 376.064
104.293 43.2065 376.063
46 34.8956 376.062
-137 -72.9011 376.061
-137 -45.0595 376.06
-72.9806 -96.8979 376.059
-327.213 -54.5861 376.058
-281 23.1124 376.056
-3.27538 6.7719 376.054
110.914 4.4918 376.054
81 -3.07027 376.053
-181.004 -96.8969 376.053
37.0533 46.8969 376.053
22.5 14.973 376.051
-225.261 46.3298 376.051
-174.956 -96.4226 376.05
-4.5 -84.9474 376.05
-222.5 38.989 376.049
-63 -56.9159 376.047
-172 -50.9011 376.047
-221.244 6.7103 376.045
-131.106 -96.8953 376.044
-23.1586 -96.8717 376.043
-28 -61.2492 376.042
-172 -13.121 376.041
-172 -65.0078 376.039
-219.023 4.82531 376.038
-281 -10.9957 376.038
22.5 17.0754 376.038
-315.324 -54.4768 376.037
19.0091 -54.8263 376.037
141.074 -36.8621 376.036
-281.167 42.9565 376.036
-333.46 -66.5236 376.036
-123.062 -96.8937 376.035
-281 14.8105 376.034
139.015 -36.8505 376.034
-28 -57.1591 376.033
-172 -61.2283 376.033
-281 -36.9952 376.032
-28 -11.1239 376.032
-229.066 -76.8588 376.031
-172 -44.8519 376.025
-137 -37.0746 376.024
23.4813 44.801 376.024
81 1.05087 376.023
-331.498 -61.0793 376.023
81 -39.1028 376.022
104.5 21.0522 376.022
46 33.2318 376.021
42.8961 46.4764 376.021
22.7395 43.2865 376.02
-4.29525 9.04924 376.019
-86.5 -82.9394 376.016
-331.225 8.84375 376.016
-222.5 41.1143 376.016
-137 -26.8743 376.016
46 -0.689295 376.015
-86.5 -75.0933 376.014
-393.109 -12.8836 376.014
-117.19 -96.6596 376.014
-223.043 -68.8846 376.014
-28 -54.9927 376.007
-28 -85.1458 376.006
-281 35.1589 376.006
-63 -58.9061 376.005
-172 -89.143 376.005
46 -19.1849 376.004
-172 -46.981 376.003
142.897 -13.2126 376.002
-137 -58.9118 376.001
-4.5 -88.9427 376
-137 -85.198 375.998
-28 -69.0183 375.998
46 21.2918 375.997
-281 -27.1422 375.997
46 -14.6867 375.996
24.4026 45.7782 375.996
-87.5061 -57.0595 375.995
-137 -47.0454 375.994
-222.5 30.8862 375.992
-66.9681 -96.7485 375.992
-137 -39.2781 375.991
-330.563 7.15281 375.99
-281 29.1145 375.99
-105.097 4.43935 375.989
46 -32.8612 375.989
46 -9.14564 375.988
-85.3037 -95.0357 375.987
-172 -78.8778 375.987
-4.5 -74.7993 375.986
-177.129 -96.8724 375.985
104.5 35.0608 375.985
-63 -33.1884 375.984
-27.9991 -91.0363 375.983
-222.5 36.752 375.983
-227.284 46.8501 375.982
-172 -34.8916 375.981
-137 -75.1634 375.981
-28 -44.9592 375.981
-388.885 -10.6367 375.98
-172 -26.7646 375.98
104.5 37.014 375.98
-281 -24.7217 375.98
-4.66318 -92.9404 375.979
30.9659 46.8839 375.978
148.626 -24.8097 375.978
-192.65 -96.3762 375.977
-81.5138 25.1087 375.977
46 -2.78221 375.977
-4.5 -67.2077 375.974
-281 32.9074 375.972
-25.2442 -96.3136 375.971
-28 -6.97377 375.97
5.25237 4.42145 375.97
26.919 46.8093 375.97
-281 -13.0021 375.97
46 -38.8298 375.97
-281 -33.0812 375.969
22.5 30.8801 375.968
-137 -62.8805 375.968
-28 -51.0523 375.968
-331.51 -62.9664 375.968
46 37.0252 375.967
46 23.0103 375.967
-172 -23.0876 375.966
-137 -42.7103 375.966
81 -6.99967 375.965
22.5 20.984 375.963
22.4898 -60.9276 375.962
-172 -70.9624 375.962
81 -26.7472 375.962
-172 -66.9614 375.961
-86.4998 -91.1109 375.961
46 -5.04218 375.96
38.9646 46.8806 375.959
-110.845 5.22336 375.959
-63 -34.7653 375.959
-172 -20.8643 375.959
-281 20.8229 375.959
-222.712 43.0844 375.957
-4.49227 -61.0062 375.955
-75.0568 -96.8797 375.954
104.5 -67.2199 375.954
-137 -20.9301 375.953
-332.393 -65.2358 375.951
-328.828 -55.1847 375.951
-113.5 12.9665 375.95
-121.145 -96.8787 375.948
108.97 -54.4835 375.948
-63 -28.9165 375.947
-9.34035 24.9323 375.946
-172 -24.9871 375.946
-172 -77.0233 375.946
35.2286 46.8782 375.945
-63 -9.00014 375.945
45.7982 43.073 375.944
-63 -60.9753 375.943
46 -42.7937 375.943
-137 -53.1432 375.941
-28 -53.0976 375.941
101.044 -73.2056 375.94
-80.9573 -96.8747 375.94
22.5003 41.1887 375.938
99.2367 -75.4057 375.934
-137 -49.3038 375.934
-240.74 46.871 375.934
81 -43.0914 375.933
-223.778 -70.1131 375.931
103.323 45.0116 375.931
-281 -34.8388 375.93
-28 -26.9273 375.93
-187.043 -96.8755 375.93
104.5 -65.161 375.93
22.296 -58.9925 375.929
-63 -16.9319 375.928
-28 -46.9595 375.927
-172 -48.978 375.927
-28 -34.7456 375.926
-28 -31.0137 375.926
-4.5 -63.145 375.924
-222.5 22.6555 375.924
-281 -30.9605 375.923
-4.5005 -90.8388 375.923
-137 -67.0567 375.921
-28 -79.1848 375.921
22.2644 8.87723 375.921
-63 -11.0394 375.919
-85.6247 19.4387 375.918
81 -1.115 375.918
46 -13.0144 375.916
-172 -17.0508 375.916
-4.5 -83.0885 375.916
-28 -42.7927 375.915
-238.697 46.873 375.915
-126.907 -96.8728 375.915
81 -33.1298 375.915
-281 -23.2826 375.914
-331.515 13.1088 375.913
-172 -85.2208 375.913
-178.962 -96.8726 375.913
22.5 38.9563 375.911
-63 -7.21506 375.91
-114.866 -95.2158 375.909
-137 -24.7837 375.909
104.5 29.0797 375.908
-65.6504 -96.2713 375.905
-63 -21.2602 375.905
-63 -42.7148 375.905
-118.548 25.1298 375.904
-328.925 5.21548 375.904
-224.408 -71.0128 375.904
-86.5 -84.8249 375.902
44.7785 45.0853 375.902
-237.27 46.8704 375.9
-222.5 24.9835 375.899
46 0.902122 375.899
-86.5 14.7027 375.897
103.599 -69.4733 375.897
-281 -7.19972 375.896
-84.8525 20.5808 375.895
81 -36.8242 375.895
-28 -36.8449 375.895
131.447 -53.1119 375.895
-63 -37.0009 375.894
81 -22.921 375.893
-28 -77.1992 375.893
-172 -41.0735 375.89
-172 -39.047 375.89
46 15.0282 375.889
-4.29101 -58.9817 375.889
-395.115 -31.087 375.888
81 -12.7902 375.886
-281 -2.62791 375.885
-172 -90.8666 375.885
-118.817 -96.8646 375.885
81 -10.7503 375.885
46 31.0165 375.885
46 3.13454 375.885
22.5 19.0621 375.884
-4.5 -86.9752 375.879
-4.5 -81.015 375.879
22.4942 10.8911 375.877
-232.848 46.8663 375.877
133.087 0.85154 375.876
-4.5 -69.1301 375.875
-137 -30.8797 375.873
-28 -38.834 375.873
-137 -57.0763 375.872
-392.993 -37.0983 375.871
-28 -28.9337 375.871
-86.5 -87.0994 375.87
-63 -31.2184 375.866
-28 -65.208 375.866
-28 -4.89522 375.865
-282.492 45.3737 375.864
-89.0406 -55.2152 375.86
33.1264 46.8632 375.859
-281 17.0258 375.859
-4.5 -78.9105 375.857
-114.423 19.4855 375.856
-28 -66.9995 375.856
-28 -89.0611 375.855
-123.079 28.9476 375.854
-70.8381 -96.8623 375.854
-137 -68.9734 375.853
104.5 27.1088 375.851
-330.544 -57.0173 375.849
-135.588 -95.2943 375.848
-281 39.2264 375.847
-83.1261 23.0188 375.846
-9.0666 -96.8042 375.846
-334.253 17.328 375.845
-6.35864 -95.7209 375.844
3.82919 4.31974 375.839
147.231 -16.8361 375.836
-63 -49.0159 375.834
46 39.1279 375.831
-172 -63.0646 375.827
-86.4964 17.0024 375.826
-28 -20.7862 375.826
-10.8375 -96.8573 375.825
-137 -23.3544 375.824
-331.831 14.4913 375.822
104.499 41.1844 375.822
-77.1974 -96.8565 375.82
-281.725 44.4 375.82
-185.154 29.0818 375.819
-28 -41.0376 375.817
131.248 3.29496 375.817
-4.5 -73.2868 375.817
-16.867 -96.8558 375.816
-172 -28.7765 375.815
22.5 28.922 375.814
-113.5 15.0868 375.812
-234.927 46.8549 375.811
46 17.0982 375.811
-281 41.2132 375.809
-88.9014 5.28148 375.809
-137 -40.7356 375.807
-112.582 7.03164 375.806
104.5 22.8858 375.806
-390.884 -10.9431 375.804
81 -8.83493 375.802
-222.5 29.205 375.802
-2.51884 5.6214 375.798
-222.5 21.0003 375.798
104.5 19.0909 375.796
-86.5 -77.0621 375.792
-86.5 -80.9494 375.787
-28 -25.2286 375.782
-136.807 -93.043 375.781
-28 -63.046 375.781
-295.006 -78.8363 375.779
-391.106 -39.0099 375.778
-28 -70.9446 375.777
-137 -80.827 375.776
-63 -4.86347 375.775
22.5 37.0624 375.774
24.4723 -71.0755 375.773
-281 26.7253 375.768
-137 -65.186 375.767
-28 -48.9003 375.766
46 19.0558 375.765
-193.629 -95.7206 375.763
-389.237 -38.9826 375.762
104.5 24.9224 375.76
-351.067 -69.8617 375.758
-386.901 -11.0217 375.756
-158.867 29.3741 375.755
-120.717 27.165 375.754
46 -7.18393 375.753
-332.748 15.5277 375.753
-76.691 28.9367 375.749
-137 -83.1187 375.748
-394.965 -18.8781 375.743
-172 -83.0803 375.742
94.7708 -78.84 375.74
-28 -75.158 375.74
29.2255 -76.7315 375.74
-281 -0.948755 375.735
-264.989 -79.3124 375.733
81 -14.9808 375.729
-50.788 10.7181 375.724
81 -5.014 375.722
-172 -69.1624 375.72
81 -47.176 375.719
-266.884 -79.2666 375.717
-28 -19.1076 375.713
-163.093 29.2541 375.711
-47.0977 29.2496 375.709
-41.0447 10.7632 375.709
-150.817 10.7622 375.709
-28 -17.1023 375.707
33.0387 -79.048 375.707
46.7137 -79.2448 375.705
-143.14 29.223 375.704
22.5 35.2306 375.703
-137 -79.0598 375.7
50.9417 -79.2007 375.696
-299.107 -75.3157 375.694
-56.9565 29.1978 375.693
-61.0587 29.2015 375.692
46 28.7467 375.692
46 4.96512 375.69
45.0206 -79.2096 375.689
147.151 -32.9759 375.689
-346.958 19.8243 375.688
-281 30.761 375.688
-234.718 -79.1994 375.685
-40.7746 29.1788 375.685
97.1831 -77.1642 375.682
-54.7984 29.1827 375.682
-157.02 29.1725 375.682
-263.232 -60.8427 375.681
-139.046 29.1689 375.68
-241.367 -79.1815 375.678
-170.781 29.1504 375.674
-57.0352 10.8563 375.673
-270.938 -60.8744 375.672
-226.35 -73.5693 375.671
-145.054 29.1455 375.67
-54.8688 10.8755 375.67
-169.105 29.1367 375.67
72.8557 -79.1361 375.669
-276.58 -60.8806 375.669
-177.051 29.1436 375.664
60.7815 -79.1145 375.663
86.9517 -79.1422 375.663
-337.082 -69.7229 375.661
-145.097 10.8953 375.661
-248.952 -79.1102 375.66
-260.81 -60.8951 375.66
77.0326 -60.9053 375.659
-266.846 -60.8999 375.658
48.994 -79.1034 375.657
-28.9611 29.0987 375.657
-51.0547 29.1008 375.655
-232.913 -78.9015 375.654
-293.122 -79.098 375.651
-269.08 -79.0827 375.651
82.9899 -79.1078 375.65
56.9156 -60.914 375.649
-61.0405 10.9192 375.649
-16.7652 29.1 375.647
41.16 -79.0964 375.645
-262.891 -79.0694 375.645
-281.126 -79.0869 375.645
-28 -23.0509 375.645
20.425 -55.389 375.644
-14.815 28.9005 375.643
30.383 -77.5915 375.641
67.2235 -79.0577 375.641
75.0954 -60.9528 375.641
-159.201 10.9434 375.639
-149.033 10.9517 375.638
-146.904 29.0596 375.638
-268.985 -60.9592 375.638
-35.0931 29.0547 375.637
-352.875 -69.7935 375.637
-53.0656 10.9632 375.636
-161.18 10.9608 375.636
-146.879 10.9616 375.636
-260.864 -79.0469 375.635
89.0814 -79.0717 375.634
-273.338 -60.9717 375.634
-30.7545 29.0401 375.632
-155.218 29.0331 375.631
84.8462 -79.0583 375.631
-37.0415 10.9731 375.631
-45.0575 10.976 375.63
52.9633 -79.0276 375.629
-156.804 10.9847 375.628
102.733 -70.7021 375.628
68.9895 -60.9903 375.628
70.9673 -60.9908 375.626
-27.1935 29.0462 375.626
-49.033 29.0239 375.626
66.731 -61.0014 375.625
-284.864 -79.0409 375.624
-62.9345 29.0304 375.624
-149.126 29.023 375.624
-254.876 -79.0024 375.623
-278.902 -79.0021 375.622
-270.828 -79.0079 375.622
-255.09 -61.0075 375.621
60.8651 -61.0033 375.618
-74.8704 29.0139 375.618
-126.971 29.0215 375.617
-53.0797 28.9946 375.617
-239.071 -79.0229 375.616
-38.8082 11.013 375.616
-258.889 -78.9827 375.616
-45.1977 28.9948 375.615
-2.58397 -55.5538 375.615
-275.118 -78.9873 375.615
-19.1249 29.0169 375.615
43.8576 45.9088 375.614
-151.316 28.9834 375.613
-358.934 19.7817 375.613
-32.7224 11.0342 375.612
-136.283 -94.3566 375.612
-175.051 29.0049 375.61
147.577 -18.8237 375.609
-155.064 11.0341 375.608
35.0227 -78.9966 375.607
-341.038 19.7768 375.607
70.9632 -78.9614 375.606
-252.911 -78.9655 375.605
52.8556 -61.0349 375.605
-133.131 28.9907 375.605
-237.189 -78.9913 375.604
-166.965 11.0454 375.604
-46.7951 11.0454 375.604
-246.896 -78.951 375.604
72.9807 -61.0557 375.603
75.1676 -78.9545 375.602
76.9234 -78.9485 375.601
-137.066 28.9694 375.601
57.149 -78.9479 375.6
-179.005 28.9757 375.599
-35.0472 11.0779 375.596
63.2875 -78.9291 375.595
39.2751 -78.9609 375.593
59.2121 -61.0793 375.593
59.2687 -78.9276 375.593
-348.903 -69.7675 375.592
-68.8579 28.9528 375.59
-183.016 28.9487 375.59
-73.0396 28.9444 375.587
-395.261 -28.8936 375.585
-39.0051 28.9107 375.585
-334.167 -67.0779 375.584
92.9429 -78.9123 375.583
-161.212 28.8999 375.582
-59.0966 11.1071 375.58
-395.484 -23.086 375.58
64.9857 -61.1172 375.579
-152.998 11.1118 375.579
80.8252 -78.9039 375.578
-58.8809 28.8872 375.578
68.6887 -78.8852 375.578
-291.084 -78.9195 375.576
-166.969 28.8815 375.576
-43.1807 11.1284 375.575
-251.195 -78.8766 375.575
-32.9534 28.8891 375.574
-125.058 28.899 375.574
-393.531 -14.8502 375.573
-276.88 -78.87 375.573
-66.9576 28.9035 375.571
-165.094 11.1406 375.571
-128.89 28.9044 375.57
78.9667 -78.8501 375.569
-259.118 -61.1613 375.565
-23.0823 28.8906 375.565
-282.767 -78.8731 375.558
-142.916 11.1768 375.555
55.2751 -61.1793 375.554
65.0802 -78.8168 375.552
-289.186 -78.8557 375.552
-297.14 -77.0312 375.551
-43.1741 28.8128 375.55
-163.225 11.1981 375.549
-153.027 28.8041 375.547
-71.0376 28.841 375.547
-48.8517 11.1989 375.546
-84.2018 -96.0026 375.545
-286.969 -78.8347 375.545
-141.297 28.8014 375.545
54.9192 -78.7939 375.544
-244.904 -78.8265 375.54
-256.896 -61.2185 375.538
-360.938 -69.7126 375.535
-220.422 5.3081 375.535
-344.935 -69.7323 375.532
-164.906 28.763 375.532
147.578 -30.8608 375.531
-79.0588 27.0564 375.531
-131.02 28.7991 375.531
-256.995 -78.7461 375.529
-264.911 -61.2539 375.529
-64.8041 28.7905 375.527
62.9152 -61.2689 375.527
43.05 -78.7866 375.526
36.8927 -78.7776 375.523
51.2041 -61.2719 375.522
-181.022 28.7775 375.522
-395.141 -20.772 375.522
-24.6306 28.7753 375.521
-356.663 -69.7281 375.52
-351.067 19.7279 375.518
-339.159 -69.7104 375.502
-20.8483 28.7209 375.501
-116.044 21.7894 375.5
-343.03 19.714 375.496
-395.387 -27.0623 375.492
-275.132 -61.3633 375.492
-135.225 28.6857 375.488
-395.461 -25.1194 375.484
-347.28 -69.7027 375.479
-36.8392 28.5819 375.465
28.4268 -75.683 375.464
-345.102 19.6963 375.463
-341.16 -69.6899 375.463
-356.934 19.6969 375.463
-243.109 -78.6191 375.462
102.029 46.0964 375.462
22.0303 7.6903 375.453
-361.313 19.651 375.453
26.3124 -73.3419 375.453
-174.034 -95.8028 375.45
20.6172 5.43896 375.449
103.974 43.9798 375.445
-173.145 28.5744 375.445
-338.68 19.681 375.444
-354.838 19.6846 375.441
-25.7565 -95.9492 375.44
-187.327 27.2181 375.423
-4.04468 7.69548 375.407
-348.851 19.6646 375.406
-10.4678 25.6195 375.391
-352.454 19.6561 375.391
-393.217 -35.528 375.391
2.78852 3.93552 375.386
-100.897 3.93335 375.376
-189.33 25.4373 375.375
-12.8085 27.408 375.362
-343.276 -69.6323 375.359
144.707 -14.6376 375.352
-330.093 -55.8833 375.349
-393.934 -33.4249 375.346
16.8345 -53.9058 375.346
118.509 -53.9031 375.345
-228.623 -75.6944 375.337
15.0753 3.89417 375.335
147.683 -29.4002 375.333
142.958 -14.6809 375.332
-204.912 3.89354 375.332
-231.144 -77.5367 375.325
143.184 -35.2948 375.322
-354.933 -69.6151 375.321
141.469 -14.709 375.319
-393.799 -16.2286 375.317
-323.271 -53.8769 375.316
114.915 3.88183 375.315
-273.137 -78.1222 375.315
-358.59 -69.6116 375.313
-97.421 3.87721 375.31
128.637 -53.8539 375.304
108.827 -53.935 375.299
111.274 -53.864 375.297
4.95367 -53.8576 375.294
139.285 -35.2324 375.294
-210.461 3.86232 375.291
-321.104 3.84753 375.282
145.148 -35.184 375.281
91.1312 -78.1439 375.28
-315.233 -53.8441 375.278
-103.31 3.8473 375.278
10.7023 3.84632 375.277
-295.577 -77.6499 375.276
18.2232 -53.911 375.275
131.999 1.82762 375.27
-202.851 3.83749 375.269
-206.876 3.83941 375.268
-203.042 -53.8339 375.266
147.706 -21.1365 375.266
-215.199 3.84104 375.265
10.9683 -53.8294 375.261
6.90536 3.8317 375.26
8.90239 3.83111 375.26
-96.5425 -53.8275 375.259
-94.9267 3.83112 375.258
-319.363 3.82601 375.257
101.707 -71.96 375.257
119.093 3.83076 375.253
126.667 3.82778 375.251
-330.158 5.89421 375.25
125.339 -53.8094 375.248
-216.962 3.82204 375.243
-104.801 -53.8128 375.242
-98.825 3.81137 375.233
-323.234 3.80519 375.233
14.7902 -53.8051 375.233
116.978 3.80918 375.229
-213.164 -53.7991 375.226
-107.103 3.79865 375.224
-91.4588 -53.8199 375.224
141.075 -35.0503 375.223
109.194 3.85629 375.222
-213.066 3.80325 375.222
138.836 -14.9438 375.221
-0.255745 3.8706 375.216
-162.753 27.8388 375.215
70.8361 -77.8332 375.212
122.789 3.79508 375.211
-100.86 -53.7855 375.21
-325.064 3.78491 375.21
-201.035 3.78534 375.208
127.191 -53.7726 375.208
-133.652 27.9483 375.206
17.0851 3.78344 375.205
7.03766 -53.7805 375.205
-143.312 27.7998 375.203
-92.4931 3.78405 375.203
129.254 3.78367 375.2
0.9683 -53.777 375.2
-49.4112 12.2259 375.2
-164.678 12.2351 375.197
12.9121 3.77467 375.195
-319.143 -53.7698 375.192
95.1253 -77.6304 375.192
1.44281 3.77035 375.192
-58.9777 27.7596 375.191
-91.428 3.78935 375.19
-321.563 -53.7675 375.189
-206.595 -53.7667 375.189
-210.959 -53.7663 375.188
43.3749 -77.9014 375.188
116.769 -53.7683 375.188
47.3385 -77.7535 375.187
-56.806 12.2699 375.186
-95.3842 -53.7622 375.183
-258.519 -77.7386 375.183
125.114 3.76905 375.181
-252.486 -77.7255 375.179
-122.672 27.556 375.178
-155.06 12.2994 375.177
-204.964 -53.7545 375.174
-72.6701 27.8618 375.173
123.378 -53.7465 375.172
86.4307 -77.8575 375.171
76.6252 -77.6961 375.171
-245.303 -77.8433 375.17
-159.209 27.6903 375.17
120.985 -53.7475 375.17
-166.97 12.3274 375.168
-54.965 12.3294 375.167
-209.095 -53.748 375.167
-257.315 -62.3127 375.167
-99.2187 -53.7474 375.166
-317.44 -53.7473 375.166
-217.369 -53.7529 375.165
-273.125 -62.3262 375.165
-153.341 12.339 375.164
-148.952 12.3403 375.164
-267.287 -77.6741 375.164
61.1433 -62.3386 375.162
-145.204 12.3478 375.162
-147.628 12.3493 375.161
-35.1942 12.3495 375.161
-236.728 -77.8277 375.16
49.0935 -77.6549 375.159
-0.589554 -53.9016 375.159
-45.0162 27.6507 375.158
-327.077 -53.7914 375.157
-268.535 -62.3535 375.157
-83.7241 21.8662 375.157
-156.921 27.6469 375.157
75.2676 -62.3555 375.155
-274.834 -77.6424 375.155
-34.9785 27.6401 375.155
-126.758 27.8131 375.154
147.783 -27.3541 375.154
-246.835 -77.639 375.154
121.036 3.74658 375.154
9.22412 -53.7357 375.153
-290.608 -77.8076 375.152
-64.9636 27.8071 375.152
-138.955 27.6316 375.152
-36.9729 27.6254 375.15
-58.9123 12.3861 375.15
-17.2564 27.8 375.149
-241.27 -77.798 375.149
-326.822 3.80741 375.148
64.6788 -77.6166 375.147
-38.554 27.6124 375.146
-325.199 -53.7302 375.146
112.74 -53.7346 375.145
-316.702 3.72905 375.145
65.1732 -62.3953 375.145
-174.951 27.7866 375.144
-268.682 -77.6033 375.144
12.59 -53.7281 375.144
-284.854 -77.7847 375.144
-50.8442 27.6034 375.144
72.8517 -62.4013 375.141
-93.1139 -53.725 375.14
-14.6203 27.7311 375.14
112.907 3.73244 375.14
-160.707 27.5835 375.138
-141.126 27.5796 375.136
-390.993 -37.8565 375.136
53.0561 -62.4222 375.135
-262.868 -62.4266 375.135
71.4282 -62.4239 375.135
3.31435 -53.7201 375.135
-33.4522 27.5734 375.134
-4.13041 -57.738 375.134
-218.827 3.95842 375.134
-170.823 27.5718 375.134
-144.907 27.5693 375.133
-260.996 -77.5635 375.133
-74.83 27.7553 375.132
-265.016 -77.5635 375.132
-44.9604 12.4457 375.131
-137.207 27.6066 375.131
84.9502 -77.7496 375.13
-164.771 27.5595 375.13
-387.521 -12.1506 375.13
-41.2076 27.5557 375.129
-214.934 -53.7151 375.129
147.768 -22.7597 375.129
-265.002 -62.4521 375.128
-30.9462 27.5521 375.128
56.8132 -62.4452 375.128
-279.112 -77.5446 375.128
62.8486 -62.4519 375.127
-280.831 -77.6389 375.127
-61.2006 27.5474 375.127
-28.7322 27.5448 375.126
-134.862 27.7371 375.126
-25.6995 27.7371 375.126
-77.2998 27.472 375.125
-52.828 27.5421 375.125
-47.2421 27.5358 375.123
-157.022 12.4743 375.122
66.9941 -77.5295 375.122
92.9525 -77.7282 375.122
-233.249 -77.6972 375.121
-252.927 -62.4724 375.12
69.028 -77.5141 375.12
-168.975 27.5241 375.119
-263.11 -77.5172 375.119
66.5866 -62.4767 375.119
-53.4313 12.489 375.118
-208.812 3.71133 375.117
44.9114 -77.7127 375.116
-158.983 12.4951 375.116
39.1213 -77.7099 375.115
-259.079 -62.4849 375.115
-254.982 -77.5035 375.115
-274.773 -62.5025 375.113
-152.873 27.5038 375.113
63.4302 -77.4986 375.113
-180.75 27.7031 375.113
35.6474 -77.7007 375.112
-42.6048 27.4963 375.111
-166.944 27.4942 375.11
-150.861 12.5169 375.109
-254.88 -62.5053 375.109
-162.961 12.5185 375.109
82.6621 -77.6924 375.109
73.1375 -77.4788 375.108
-27.2502 27.6819 375.107
-54.5163 27.4796 375.106
-56.7112 27.4765 375.105
54.8466 -77.4673 375.105
-239.091 -77.6807 375.104
-177.1 27.679 375.103
-389.175 -12.2076 375.103
-118.129 23.9799 375.103
-292.646 -77.674 375.102
-251.267 -77.4572 375.101
-108.876 3.72916 375.101
-19.067 27.6704 375.1
36.7603 -77.6687 375.1
-154.816 27.4581 375.099
-67.1218 27.6673 375.099
-71.2222 27.6665 375.099
-183.316 27.6654 375.098
-248.967 -77.4445 375.098
-129.07 27.6626 375.097
-261.299 -62.5517 375.096
54.722 -62.5433 375.095
33.3253 -77.6484 375.095
18.5565 3.85343 375.094
-68.8555 27.6477 375.092
-178.819 27.6462 375.091
-39.3132 12.5778 375.09
-184.793 27.6266 375.089
-267.215 -62.5798 375.088
-147.151 27.4188 375.087
-131.014 27.6351 375.087
-20.8607 27.6334 375.086
81.2065 -77.5652 375.084
59.1891 -62.5871 375.084
147.824 -24.6381 375.083
-103.501 -53.6757 375.083
52.8911 -77.392 375.082
-286.118 -77.6236 375.082
-49.3776 27.3975 375.081
56.6318 -77.3814 375.079
-389.007 -37.7391 375.077
-390.736 -12.2646 375.077
-63.0149 27.5056 375.076
-173.101 27.591 375.07
-243.021 -77.5798 375.066
-125.17 27.5774 375.065
111.155 3.66687 375.063
-235.242 -77.5465 375.053
-288.678 -77.5383 375.05
-50.8708 12.7236 375.045
107.918 -53.9838 375.045
-297.755 -75.8618 375.036
-218.857 -53.8832 375.034
-85.9314 -93.9937 375.029
-276.893 -77.2013 375.028
-22.9957 27.4775 375.027
-270.798 -77.1538 375.015
-40.9867 12.8687 375.011
-46.8091 12.8944 375.004
-43.2261 12.8974 375.002
59.1031 -77.0939 374.998
78.7379 -77.0911 374.997
75.0164 -77.0799 374.996
-143.137 12.9213 374.995
-161.055 12.9346 374.991
-36.9408 12.9382 374.99
-256.837 -77.0527 374.987
60.9398 -77.0499 374.987
50.9515 -77.0562 374.986
-219.856 -54.3707 374.986
68.8639 -62.9449 374.985
-270.83 -63.0345 374.961
-150.634 26.9625 374.959
139.228 -34.3806 374.955
143.085 -34.378 374.953
-149.143 26.8765 374.935
19.6666 4.1984 374.932
29.8363 -76.1304 374.927
144.703 -15.6977 374.924
-1.68297 -54.2123 374.92
143.17 -15.7113 374.919
-283.029 -77.1905 374.918
-153.437 13.1962 374.912
-252.98 -63.2213 374.909
-227.592 -74.2296 374.906
-55.0531 26.7789 374.904
75.253 -63.2783 374.894
141.46 -15.7848 374.89
141.069 -34.1941 374.884
145.187 -34.1995 374.883
-137.27 26.7834 374.881
-34.9561 26.6847 374.88
-275.206 -63.3316 374.879
72.9838 -63.3429 374.877
-138.808 26.6694 374.876
-121.254 26.3044 374.873
-246.914 -76.6505 374.873
59.0218 -63.3565 374.873
-44.924 26.6557 374.872
62.9432 -63.362 374.872
-164.63 26.6468 374.871
46.7333 -76.6568 374.871
-257.051 -63.3697 374.869
-333.878 -66.3283 374.865
-263.052 -63.3873 374.864
-49.0613 26.6187 374.863
-147.058 13.3874 374.863
-162.772 13.3959 374.861
-254.952 -63.3993 374.861
-61.0284 26.6095 374.86
52.8014 -76.6061 374.86
-164.951 13.4067 374.859
-35.2148 13.4076 374.858
-152.948 26.6003 374.858
-171.056 26.6834 374.857
96.7643 -76.2517 374.857
-265.099 -76.585 374.857
-273.048 -63.4151 374.857
-258.711 -76.5979 374.857
-151.132 13.4176 374.856
-159.241 13.4228 374.856
-265.177 -63.4196 374.856
-53.3233 13.4198 374.855
56.8124 -63.4193 374.855
-160.848 26.5812 374.854
-162.633 26.5839 374.854
-261.272 -63.4245 374.854
-156.925 26.5839 374.854
-143.058 26.5832 374.854
54.8517 -63.434 374.851
60.9293 -63.4366 374.851
-158.985 26.5691 374.85
-248.737 -76.5659 374.85
-38.9611 13.4472 374.848
-267.196 -63.4465 374.848
-46.7087 26.5602 374.848
-275.271 -76.5461 374.847
-278.814 -76.552 374.847
-144.867 13.4547 374.847
-50.8612 26.5464 374.846
70.8429 -63.4541 374.846
77.2931 -76.5412 374.844
-166.903 13.4709 374.843
-42.948 26.5375 374.843
-255.055 -76.5235 374.841
-140.878 26.5271 374.839
48.4977 -76.5258 374.839
-59.119 13.4861 374.839
-154.961 13.4882 374.838
-33.1181 26.52 374.838
-167.08 26.5122 374.836
70.8097 -76.5147 374.835
63.1082 -76.5032 374.835
-268.697 -76.4995 374.832
-41.0307 26.5002 374.832
-55.1668 13.511 374.832
-147.375 26.4945 374.832
72.9186 -76.5011 374.832
65.3551 -76.4953 374.831
-155.152 26.4909 374.83
-156.801 13.5287 374.828
-148.944 13.5295 374.828
-50.9925 13.5332 374.827
-29.4602 26.4774 374.827
-65.1466 26.9502 374.826
-44.8908 13.5393 374.825
-53.0864 26.4708 374.825
-37.3752 26.4672 374.825
-58.9563 26.4646 374.824
-57.0315 26.4662 374.824
69.0966 -76.4601 374.822
56.8823 -76.4561 374.822
67.0328 -63.5475 374.822
67.1485 -76.4556 374.822
-266.966 -76.4528 374.821
-262.618 -76.4278 374.818
-259.305 -63.5586 374.818
65.0224 -63.5603 374.817
-134.286 -96.1194 374.815
27.9281 -74.4423 374.814
53.1783 -63.5763 374.814
-169.508 26.4282 374.814
-261.105 -76.4245 374.814
-39.2706 26.4226 374.813
-48.9964 13.6039 374.809
-281.158 -76.7413 374.807
-251.327 -76.3897 374.806
-252.878 -76.3887 374.806
-183.436 26.897 374.806
-394.092 -30.9583 374.801
-57.1108 13.6373 374.801
19.8575 -54.2152 374.8
-31.1783 26.3692 374.799
-241.084 -76.8637 374.793
-173.034 26.8516 374.789
146.354 -32.7766 374.788
-178.913 26.8492 374.788
-273.092 -76.3292 374.787
-25.138 26.8473 374.787
-268.91 -63.678 374.786
-290.75 -76.8399 374.784
-233.057 -76.8234 374.782
-392.175 -36.7316 374.782
-71.2091 26.8336 374.782
-20.9686 26.8139 374.774
-62.9718 26.5936 374.773
-394.234 -19.8006 374.769
-296.62 -76.1456 374.769
-126.803 26.7918 374.766
-239.063 -76.7864 374.764
-80.4851 24.8734 374.763
146.487 -17.7359 374.762
-186.66 26.4457 374.761
-129.456 26.7767 374.76
-145.142 26.215 374.76
104.1 -68.402 374.757
-292.688 -76.7655 374.756
94.8843 -76.6913 374.755
-78.5857 26.1815 374.753
-23.0861 26.7502 374.75
-234.798 -76.7395 374.746
-74.8724 26.7355 374.745
31.1019 -76.4467 374.744
-18.8936 26.7327 374.743
83.2465 -76.7321 374.743
92.9354 -76.7296 374.742
-16.8912 26.7108 374.735
32.9957 -76.7065 374.734
38.952 -76.7074 374.734
40.8125 -76.7058 374.733
-124.909 26.7022 374.732
-133.104 26.6937 374.729
-231.175 -76.3892 374.729
-394.435 -28.6783 374.727
-66.8465 26.6876 374.726
-69.0945 26.6817 374.724
43.24 -76.6763 374.722
-76.8831 26.6407 374.721
-242.967 -76.6682 374.719
-176.981 26.6678 374.719
-15.1258 26.6653 374.718
-286.965 -76.6596 374.716
-392.189 -13.4428 374.715
90.9569 -76.6431 374.709
37.2544 -76.6413 374.709
-130.978 26.64 374.708
35.1826 -76.6391 374.708
85.1076 -76.6376 374.707
-119.271 24.5779 374.706
-185.004 26.6256 374.705
-123.039 26.5676 374.703
-72.9142 26.6139 374.698
81.5789 -76.5087 374.698
-285.127 -76.6122 374.698
-27.0375 26.6033 374.697
-134.909 26.6039 374.694
-180.839 26.5863 374.688
-117.411 22.7669 374.687
-174.845 26.5827 374.686
-237.246 -76.572 374.682
89.0065 -76.563 374.679
-245.178 -76.5552 374.676
44.9398 -76.5408 374.67
-13.3419 26.3111 374.657
-294.767 -76.461 374.654
-225.856 -72.149 374.651
21.8348 -56.5974 374.648
-288.889 -76.4348 374.63
-335.74 -68.3332 374.628
98.6036 -74.5731 374.624
-390.971 -36.7964 374.624
-387.016 -13.2014 374.623
-394.591 -24.9503 374.608
87.5272 -76.3685 374.605
21.757 6.4084 374.599
-390.979 -13.2555 374.597
-116.046 -95.9881 374.59
132.59 0.358589 374.588
-394.473 -22.7548 374.587
-11.1391 25.0781 374.587
-389.178 -13.2738 374.587
-335.671 18.2283 374.586
-31.0545 14.5675 374.584
-270.861 -75.39 374.582
-262.809 -64.6019 374.579
-59.0916 14.6022 374.574
-142.951 14.6475 374.569
-3.75829 -56.3819 374.566
-267.04 -64.6909 374.559
-34.9282 25.3186 374.558
-1.87803 4.01489 374.554
-329.51 4.56192 374.553
-65.8231 -96.1272 374.552
-166.979 14.7329 374.551
49.1198 -75.2181 374.546
145.08 -16.8329 374.544
-163.254 25.2218 374.54
-158.875 14.7828 374.539
-276.964 -75.175 374.536
-33.028 14.8084 374.535
-147.044 14.819 374.535
-143.105 25.1873 374.534
143.096 -16.8704 374.533
-55.2305 25.1805 374.532
61.0902 -64.8555 374.529
-169.001 25.1486 374.529
139.172 -16.8796 374.529
62.8454 -75.1372 374.528
-39.3211 14.8387 374.528
-144.805 14.8529 374.527
79.414 -75.1347 374.525
74.9054 -64.8644 374.525
-139.087 25.1484 374.525
-255.015 -75.1387 374.524
-256.938 -75.1392 374.524
67.0383 -75.1131 374.523
-52.8304 14.8834 374.52
-257.035 -64.8865 374.519
75.0475 -75.0878 374.519
55.0002 -64.904 374.519
-155.22 14.903 374.519
-37.0948 25.1141 374.518
-258.989 -64.8927 374.517
73.1508 -64.9128 374.517
-165.445 14.9015 374.517
-29.0099 25.1039 374.516
52.9392 -75.1041 374.514
-171.27 25.1552 374.514
-389.359 -36.5664 374.513
-164.879 25.0858 374.512
-266.532 -75.0854 374.512
-156.857 25.0789 374.511
69.1203 -75.0619 374.51
145.186 -33.0549 374.51
-140.867 25.0683 374.51
-333.99 16.2309 374.509
-270.943 -64.963 374.509
-254.912 -64.9522 374.508
-33.1631 25.0579 374.507
-251.032 -75.0329 374.507
-147.11 25.0554 374.506
71.0266 -75.0291 374.505
-57.0813 25.05 374.505
-47.265 25.0562 374.505
-42.996 25.039 374.504
-265.048 -75.0253 374.503
-161.042 25.0373 374.503
-166.921 25.0422 374.502
70.8518 -64.9783 374.502
50.6869 -64.9805 374.501
-44.6261 14.9846 374.501
-49.0456 14.9868 374.5
68.7807 -64.997 374.5
-261.029 -75.0111 374.498
138.85 -33.0367 374.498
-278.906 -74.9974 374.498
-153.172 14.9949 374.498
-51.0254 25.0122 374.498
-273.09 -64.9884 374.498
-155.026 24.9963 374.497
-45.0141 24.9769 374.494
-36.9681 15.0279 374.493
-274.77 -65.0358 374.493
-253.361 -65.0332 374.493
56.836 -74.9601 374.491
-163.052 15.0275 374.491
-53.0904 24.9672 374.491
59.2426 -74.9564 374.49
65.1587 -65.057 374.49
-274.981 -74.9505 374.489
-228.915 -74.7456 374.489
-300.425 -72.7323 374.489
-56.9155 15.0525 374.489
73.0722 -74.9547 374.488
77.0606 -74.9202 374.487
-148.896 24.9571 374.487
-48.932 24.9585 374.487
65.0258 -74.9439 374.487
-150.828 24.9516 374.486
-59.2514 24.9462 374.486
-249.129 -74.9387 374.486
-272.879 -74.9379 374.486
-149.198 15.0656 374.485
-41.2476 15.0644 374.485
-38.8552 24.9332 374.485
-88.4596 -54.5651 374.483
-394.386 -27.0094 374.483
-264.762 -65.0836 374.483
-111.502 4.51636 374.482
53.1261 -65.0895 374.481
-152.963 24.9251 374.481
-40.8706 24.9358 374.481
67.1116 -65.1034 374.481
-151.037 15.0825 374.48
100.541 -72.6007 374.479
146.554 -19.142 374.479
-161.068 15.1084 374.478
-188.5 24.8657 374.476
-159.004 24.889 374.476
-34.8718 15.1151 374.475
29.017 -74.7878 374.472
-298.623 -74.351 374.472
55.1919 -74.851 374.471
58.821 -65.1231 374.47
-247.098 -74.8672 374.47
-84.5173 20.3401 374.47
60.7624 -74.8609 374.47
-268.579 -65.1483 374.47
-263.049 -74.8376 374.469
-47.0301 15.1608 374.469
-190.995 22.7201 374.469
-253.21 -74.847 374.468
-43.1127 15.1517 374.468
-157.083 15.1536 374.468
-145.052 24.853 374.468
50.7769 -74.8514 374.467
57.0311 -65.1444 374.465
-50.9587 15.1788 374.463
-268.771 -74.8017 374.461
-55.1748 15.1887 374.461
-61.0552 24.8064 374.46
-260.885 -65.1944 374.458
143.051 -32.8612 374.447
140.854 -17.1285 374.447
-277.162 -65.2591 374.444
-31.197 24.7246 374.442
62.6171 -65.3135 374.441
-82.6495 22.4395 374.441
-259.088 -74.6579 374.434
130.65 -52.8093 374.429
-63 -53.201 374.429
-61.279 15.3603 374.427
132.358 -50.5165 374.423
140.679 -32.7855 374.422
102.444 -70.4197 374.422
46.7892 -74.827 374.422
-63.8212 -94.3196 374.42
146.518 -30.7392 374.416
-121.106 25.3412 374.414
130.623 2.76239 374.413
-242.655 46.3036 374.407
-192.356 -96.2382 374.396
-329.608 -54.5278 374.394
46 -7.15401 374.386
-113.929 18.2723 374.385
112.956 -53.0581 374.385
-318.842 3.03309 374.362
-137.089 25.1623 374.361
-392.572 -34.6956 374.36
-323.107 3.02668 374.358
22.5 -64.7017 374.357
146.773 -28.9364 374.336
-281 7.0608 374.336
-216.842 -53.0087 374.335
4.93095 3.00712 374.333
81.1592 -75.2296 374.321
-4.5 -85.1476 374.321
-94.7324 -52.9942 374.32
-115.735 20.541 374.319
-280.848 -74.9658 374.318
-62.9453 25.1872 374.318
-4.50263 -90.9027 374.317
-172 -10.8544 374.314
-222.726 42.9339 374.311
-9.08195 22.9515 374.31
-28 -21.0629 374.31
23.4878 -68.9617 374.306
-227.068 -72.9652 374.304
-213.419 -52.9823 374.302
26.8686 -72.7596 374.302
-137 -76.6915 374.294
-281.785 44.2388 374.294
-28 -83.3795 374.294
-116.813 -96.2755 374.292
-317.066 2.96383 374.292
12.9774 -52.9664 374.288
-227.027 46.5347 374.287
46 23.063 374.286
6.94047 -52.9558 374.283
-28 -80.8783 374.279
-6.45492 -95.5273 374.279
-69.3505 -96.5887 374.277
46 -37.0437 374.276
-296.98 -75.022 374.273
-320.949 2.95044 374.273
-137 -78.8795 374.271
-78.9966 24.9962 374.271
-86.2975 -92.7817 374.269
-86.5 -79.0198 374.268
-172 -74.9491 374.266
-93.0529 2.94472 374.265
-281 -5.04151 374.263
-393.939 -21.007 374.262
-63 -61.0929 374.259
-172 -35.0937 374.255
46 -23.0001 374.253
-331.084 6.97957 374.253
113.059 2.93098 374.252
-220.002 3.8465 374.251
46 25.1402 374.248
-7.63763 -96.2134 374.248
-28 -77.0628 374.243
-91.0194 -53.0028 374.24
-172 -68.9243 374.24
-172 -49.0702 374.239
-392.465 -15.3265 374.238
-136.74 -92.9735 374.237
-157.226 16.6253 374.235
97.0329 -74.8971 374.23
-172 -90.6596 374.228
-28 -89.1936 374.228
-172 -31.0321 374.227
-50.9384 16.6601 374.226
-222.5 -64.7894 374.224
-103.108 2.90173 374.223
-193.581 -95.4841 374.223
61.0065 -66.7325 374.22
66.9129 -66.7063 374.22
-22.8678 -96.5704 374.219
-161.132 23.2845 374.217
-63 -39.0031 374.214
-164.956 23.2343 374.213
46 27.0722 374.212
125.003 2.8856 374.211
-160.861 16.8072 374.211
72.9953 -66.7886 374.211
-145.025 16.8157 374.211
-256.961 -73.1821 374.21
-154.936 16.798 374.21
-163.06 16.8261 374.209
